# .PCD v0.7 - Point Cloud Data file format
VERSION 0.7
FIELDS x y z rgb
SIZE 4 4 4 4
TYPE F F F U
COUNT 1 1 1 1
WIDTH 1119
HEIGHT 1
VIEWPOINT 0 0 0 1 0 0 0
POINTS 1119
DATA ascii
-0.0012994648 -0.055876985 0.4801563 26112
-0.00043307783 -0.055867039 0.48007083 26112
0.00043308342 -0.055867761 0.48007703 26112
0.001299481 -0.055877682 0.48016229 26112
0.0021661862 -0.055887602 0.48024753 26112
0.0030331989 -0.055897523 0.48033279 26112
0.0039005696 -0.055908166 0.48042423 26112
0.0047699786 -0.055938836 0.4806878 26112
0.0056403419 -0.055969544 0.48095167 26112
0.0065116617 -0.056000289 0.48121586 26112
0.0073839389 -0.056031067 0.48148033 26112
0.0082597136 -0.056079108 0.48189315 26112
0.0091380524 -0.056133747 0.48236269 26112
0.010018106 -0.056188505 0.48283321 26112
0.010899876 -0.056243364 0.48330462 26112
0.011788379 -0.056322258 0.48398256 26112
0.012680748 -0.056407467 0.48471478 26112
0.01357581 -0.056492887 0.48544881 26112
0.014478035 -0.056595955 0.48633447 26112
0.015390582 -0.05672529 0.48744586 26112
0.016307343 -0.056855332 0.48856333 26112
0.017243767 -0.057037078 0.49012509 26112
0.018193774 -0.057243824 0.49190167 26112
0.019195434 -0.057586301 0.49484462 26112
-0.019186646 -0.056667533 0.49461806 26112
-0.018189425 -0.056342851 0.4917841 26112
-0.017239589 -0.056139171 0.4900063 26112
-0.016304832 -0.055965237 0.48848811 26112
-0.015388218 -0.055837248 0.48737097 26112
-0.014475778 -0.055709813 0.48625866 26112
-0.013574405 -0.055611268 0.48539853 26112
-0.012679421 -0.055527121 0.48466405 26112
-0.011787153 -0.055443272 0.4839322 26112
-0.010899168 -0.055367772 0.48327318 26112
-0.010017453 -0.055313759 0.48280174 26112
-0.0091374535 -0.055259839 0.4823311 26112
-0.0082591688 -0.055206023 0.48186138 26112
-0.0073836702 -0.055160359 0.48146281 26112
-0.0065114195 -0.05513002 0.48119798 26112
-0.0056401291 -0.055099722 0.48093355 26112
-0.0047697965 -0.055069469 0.48066947 26112
-0.0039004744 -0.055040028 0.48041248 26112
-0.0030331626 -0.055030234 0.48032701 26112
-0.002166159 -0.05502044 0.48024154 26112
-0.001299464 -0.055010647 0.48015603 26112
-0.00043307757 -0.055000853 0.48007056 26112
0.00043308316 -0.055001561 0.48007673 26112
0.0012994801 -0.055011325 0.48016196 26112
0.0021661848 -0.055021092 0.48024723 26112
0.003033197 -0.05503086 0.48033246 26112
0.0039005668 -0.055041332 0.48042387 26112
0.0047699749 -0.055071529 0.48068744 26112
0.0056403377 -0.05510176 0.48095131 26112
0.0065116566 -0.055132024 0.48121548 26112
0.0073839333 -0.055162326 0.48147997 26112
0.0082597062 -0.055209614 0.48189273 26112
0.009138044 -0.055263411 0.48236227 26112
0.010018096 -0.055317312 0.48283276 26112
0.010899867 -0.055371322 0.48330417 26112
0.011788367 -0.055448987 0.48398206 26112
0.012680735 -0.055532873 0.48471427 26112
0.013575795 -0.055616967 0.48544827 26112
0.014478016 -0.055718422 0.48633382 26112
0.015390562 -0.055845752 0.48744521 26112
0.016307322 -0.055973783 0.4885627 26112
0.017243737 -0.056152683 0.49012423 26112
0.01819374 -0.056356221 0.4919008 26112
0.01919538 -0.056693334 0.49484324 26112
-0.019186674 -0.055775218 0.4946188 26112
-0.018189434 -0.055455592 0.49178436 26112
-0.017239597 -0.055255119 0.49000654 26112
-0.016304834 -0.055083901 0.48848817 26112
-0.015388219 -0.054957923 0.487371 26112
-0.014475779 -0.054832496 0.48625869 26112
-0.013574403 -0.054735493 0.48539847 26112
-0.012679419 -0.054652672 0.48466399 26112
-0.011787151 -0.054570146 0.48393214 26112
-0.010899164 -0.054495823 0.48327303 26112
-0.010017449 -0.054442659 0.48280159 26112
-0.0091374507 -0.054389589 0.48233095 26112
-0.008259166 -0.054336622 0.48186123 26112
-0.0073836669 -0.054291669 0.4814626 26112
-0.0065114168 -0.054261807 0.48119777 26112
-0.0056401268 -0.054231986 0.48093334 26112
-0.0047697946 -0.054202214 0.48066929 26112
-0.0039004721 -0.054173224 0.48041221 26112
-0.0030331609 -0.05416359 0.48032677 26112
-0.0021661581 -0.054153949 0.4802413 26112
-0.0012994634 -0.054144308 0.4801558 26112
-0.00043307737 -0.054134671 0.48007032 26112
0.00043308284 -0.054135356 0.4800764 26112
0.0012994793 -0.054144971 0.48016167 26112
0.0021661832 -0.054154582 0.4802469 26112
0.0030331952 -0.054164197 0.48033217 26112
0.0039005638 -0.054174498 0.48042351 26112
0.0047699711 -0.054204218 0.48068708 26112
0.0056403335 -0.054233976 0.48095095 26112
0.0065116514 -0.054263763 0.48121512 26112
0.0073839277 -0.054293584 0.48147959 26112
0.0082596987 -0.054340124 0.48189229 26112
0.0091380365 -0.054393072 0.48236185 26112
0.010018087 -0.054446127 0.48283234 26112
0.010899857 -0.054499287 0.48330376 26112
0.011788355 -0.054575715 0.48398155 26112
0.012680721 -0.054658279 0.48471373 26112
0.013575781 -0.054741051 0.48544776 26112
0.014477997 -0.054840896 0.48633319 26112
0.015390542 -0.054966222 0.48744458 26112
0.0163073 -0.05509223 0.48856205 26112
0.017243708 -0.055268295 0.49012339 26112
0.018193709 -0.055468626 0.49189994 26112
0.019195328 -0.055800371 0.49484187 26112
-0.019186703 -0.054882895 0.49461955 26112
-0.018189445 -0.054568335 0.49178463 26112
-0.017239606 -0.054371063 0.49000677 26112
-0.016304836 -0.05420256 0.4884882 26112
-0.01538822 -0.054078601 0.48737103 26112
-0.014475781 -0.053955182 0.48625875 26112
-0.0135744 -0.053859718 0.48539838 26112
-0.012679419 -0.053778224 0.48466393 26112
-0.01178715 -0.053697016 0.48393208 26112
-0.010899161 -0.05362387 0.48327288 26112
-0.010017446 -0.053571559 0.48280144 26112
-0.0091374489 -0.053519342 0.48233083 26112
-0.0082591642 -0.053467218 0.48186108 26112
-0.0073836641 -0.053422984 0.48146242 26112
-0.006511414 -0.053393595 0.48119757 26112
-0.0056401244 -0.053364255 0.48093316 26112
-0.0047697928 -0.053334955 0.48066908 26112
-0.0039004702 -0.053306427 0.48041198 26112
-0.0030331593 -0.053296942 0.4803265 26112
-0.0021661569 -0.053287458 0.48024103 26112
-0.0012994627 -0.053277969 0.48015553 26112
-0.00043307713 -0.053268485 0.48007005 26112
0.00043308258 -0.053269159 0.4800761 26112
0.0012994785 -0.053278618 0.48016137 26112
0.002166182 -0.053288076 0.4802466 26112
0.0030331931 -0.053297538 0.48033187 26112
0.003900561 -0.053307667 0.48042315 26112
0.0047699674 -0.053336907 0.48068669 26112
0.0056403293 -0.053366192 0.48095059 26112
0.0065116468 -0.053395502 0.48121476 26112
0.0073839221 -0.053424846 0.48147923 26112
0.0082596913 -0.053470634 0.48189187 26112
0.0091380281 -0.053522736 0.48236141 26112
0.010018079 -0.053574942 0.48283193 26112
0.010899847 -0.053627253 0.48330334 26112
0.011788342 -0.053702448 0.48398104 26112
0.012680707 -0.053783692 0.48471323 26112
0.013575766 -0.053865135 0.48544723 26112
0.014477978 -0.053963371 0.48633254 26112
0.015390522 -0.054086693 0.48744395 26112
0.016307279 -0.054210685 0.48856142 26112
0.017243678 -0.054383907 0.49012253 26112
0.018193677 -0.054581031 0.49189907 26112
0.019195274 -0.054907411 0.4948405 26112
-0.019186731 -0.053990569 0.49462026 26112
-0.018189453 -0.053681068 0.49178487 26112
-0.017239613 -0.053487003 0.49000698 26112
-0.016304838 -0.053321224 0.48848823 26112
-0.015388221 -0.05319928 0.48737109 26112
-0.014475781 -0.053077865 0.48625877 26112
-0.013574398 -0.052983943 0.48539832 26112
-0.012679417 -0.052903771 0.48466387 26112
-0.011787147 -0.052823883 0.48393199 26112
-0.010899158 -0.052751925 0.48327276 26112
-0.010017443 -0.05270046 0.48280129 26112
-0.0091374461 -0.052649092 0.48233068 26112
-0.0082591614 -0.052597817 0.48186094 26112
-0.0073836609 -0.052554294 0.48146221 26112
-0.0065114112 -0.052525382 0.48119736 26112
-0.0056401221 -0.052496523 0.48093295 26112
-0.0047697905 -0.052467696 0.48066887 26112
-0.0039004681 -0.052439626 0.48041171 26112
-0.0030331577 -0.052430298 0.48032627 26112
-0.0021661557 -0.05242097 0.48024079 26112
-0.001299462 -0.052411634 0.48015529 26112
-0.0004330769 -0.052402306 0.48006982 26112
0.00043308231 -0.052402958 0.48007581 26112
0.0012994776 -0.052412268 0.48016107 26112
0.0021661806 -0.05242157 0.48024631 26112
0.0030331912 -0.052430879 0.48033157 26112
0.0039005578 -0.052440833 0.48042277 26112
0.0047699637 -0.052469604 0.48068634 26112
0.0056403247 -0.052498404 0.48095021 26112
0.0065116417 -0.052527245 0.4812144 26112
0.0073839165 -0.052556112 0.48147887 26112
0.0082596848 -0.052601147 0.48189145 26112
0.0091380198 -0.0526524 0.48236099 26112
0.010018069 -0.052703757 0.48283148 26112
0.010899838 -0.052755214 0.48330289 26112
0.01178833 -0.052829184 0.48398054 26112
0.012680694 -0.052909102 0.48471269 26112
0.013575751 -0.052989222 0.48544669 26112
0.014477958 -0.053085845 0.48633188 26112
0.015390501 -0.053207163 0.4874433 26112
0.016307259 -0.053329144 0.4885608 26112
0.017243648 -0.053499524 0.49012169 26112
0.018193647 -0.053693444 0.49189824 26112
0.01919522 -0.054014456 0.4948391 26112
-0.019186759 -0.053098243 0.49462101 26112
-0.018189464 -0.052793808 0.49178514 26112
-0.017239621 -0.052602947 0.49000722 26112
-0.016304839 -0.052439887 0.48848829 26112
-0.015388222 -0.052319955 0.48737112 26112
-0.014475782 -0.052200548 0.4862588 26112
-0.013574397 -0.052108169 0.48539826 26112
-0.012679415 -0.052029323 0.48466381 26112
-0.011787146 -0.051950756 0.48393193 26112
-0.010899154 -0.051879976 0.48327261 26112
-0.010017441 -0.051829368 0.48280117 26112
-0.0091374433 -0.051778842 0.48233053 26112
-0.0082591595 -0.05172842 0.48186082 26112
-0.0073836581 -0.051685605 0.481462 26112
-0.0065114088 -0.051657178 0.48119718 26112
-0.0056401202 -0.051628791 0.48093277 26112
-0.0047697886 -0.051600441 0.48066869 26112
-0.003900466 -0.051572829 0.48041147 26112
-0.003033156 -0.051563654 0.480326 26112
-0.0021661546 -0.051554479 0.48024052 26112
-0.0012994613 -0.0515453 0.48015502 26112
-0.00043307667 -0.051536124 0.48006955 26112
0.00043308205 -0.051536765 0.48007551 26112
0.0012994768 -0.051545918 0.48016077 26112
0.0021661792 -0.051555067 0.48024601 26112
0.0030331891 -0.051564217 0.48033124 26112
0.003900555 -0.051574003 0.48042241 26112
0.0047699604 -0.051602297 0.48068598 26112
0.0056403205 -0.051630624 0.48094985 26112
0.006511637 -0.051658988 0.48121405 26112
0.0073839109 -0.051687378 0.48147851 26112
0.0082596764 -0.051731661 0.48189101 26112
0.0091380123 -0.051782068 0.48236057 26112
0.010018061 -0.051832575 0.48283106 26112
0.010899828 -0.051883183 0.48330247 26112
0.011788318 -0.05195592 0.48398003 26112
0.01268068 -0.052034516 0.48471218 26112
0.013575737 -0.052113313 0.48544618 26112
0.014477938 -0.052208323 0.48633122 26112
0.015390482 -0.052327637 0.48744267 26112
0.016307237 -0.052447598 0.48856014 26112
0.017243618 -0.052615143 0.49012086 26112
0.018193614 -0.052805856 0.49189737 26112
0.019195167 -0.053121507 0.49483773 26112
-0.019186789 -0.052205913 0.49462175 26112
-0.018189473 -0.051906545 0.49178541 26112
-0.01723963 -0.051718887 0.49000746 26112
-0.016304839 -0.051558547 0.48848832 26112
-0.015388223 -0.051440634 0.48737115 26112
-0.014475783 -0.051323231 0.48625883 26112
-0.013574394 -0.05123239 0.48539817 26112
-0.012679413 -0.051154871 0.48466372 26112
-0.011787144 -0.051077627 0.48393187 26112
-0.010899152 -0.051008027 0.48327246 26112
-0.010017438 -0.050958268 0.48280102 26112
-0.0091374405 -0.050908595 0.48233038 26112
-0.0082591567 -0.050859019 0.48186067 26112
-0.0073836548 -0.050816916 0.48146179 26112
-0.006511406 -0.050788965 0.48119697 26112
-0.0056401175 -0.050761059 0.48093256 26112
-0.0047697867 -0.050733186 0.48066849 26112
-0.0039004642 -0.050706033 0.48041123 26112
-0.0030331546 -0.050697014 0.48032576 26112
-0.0021661534 -0.050687991 0.48024029 26112
-0.0012994607 -0.050678965 0.48015478 26112
-0.00043307646 -0.050669946 0.48006931 26112
0.00043308176 -0.050670564 0.48007518 26112
0.001299476 -0.050679564 0.48016044 26112
0.0021661778 -0.050688561 0.48024568 26112
0.0030331872 -0.050697561 0.48033094 26112
0.0039005519 -0.050707176 0.48042205 26112
0.0047699567 -0.050734993 0.48068562 26112
0.0056403163 -0.050762847 0.48094949 26112
0.0065116324 -0.050790731 0.48121369 26112
0.0073839058 -0.050818644 0.48147815 26112
0.0082596699 -0.050862174 0.48189059 26112
0.0091380039 -0.050911732 0.48236012 26112
0.010018052 -0.050961394 0.48283061 26112
0.010899819 -0.051011149 0.48330203 26112
0.011788305 -0.051082652 0.48397949 26112
0.012680667 -0.051159929 0.48471165 26112
0.013575722 -0.051237401 0.48544565 26112
0.01447792 -0.051330805 0.4863306 26112
0.015390462 -0.051448118 0.48744205 26112
0.016307216 -0.051566061 0.48855951 26112
0.017243588 -0.051730767 0.49011999 26112
0.018193582 -0.051918272 0.49189651 26112
0.019195113 -0.052228566 0.49483636 26112
-0.019186817 -0.051313583 0.4946225 26112
-0.018189482 -0.051019277 0.49178565 26112
-0.017239638 -0.050834827 0.49000767 26112
-0.016304841 -0.050677206 0.48848835 26112
-0.015388224 -0.050561309 0.48737118 26112
-0.014475784 -0.050445914 0.48625886 26112
-0.013574393 -0.050356619 0.48539811 26112
-0.012679411 -0.050280422 0.48466367 26112
-0.011787144 -0.050204501 0.48393181 26112
-0.010899149 -0.050136086 0.48327234 26112
-0.010017434 -0.050087173 0.48280087 26112
-0.0091374377 -0.050038349 0.48233026 26112
-0.0082591539 -0.049989618 0.48186052 26112
-0.007383652 -0.049948234 0.48146161 26112
-0.0065114032 -0.049920756 0.48119676 26112
-0.0056401151 -0.049893327 0.48093235 26112
-0.0047697849 -0.049865931 0.48066828 26112
-0.0039004621 -0.049839236 0.48041096 26112
-0.0030331528 -0.04983037 0.48032549 26112
-0.0021661522 -0.049821503 0.48024002 26112
-0.00129946 -0.04981263 0.48015451 26112
-0.0004330762 -0.049803764 0.48006904 26112
0.00043308147 -0.049804371 0.48007488 26112
0.0012994752 -0.049813215 0.48016015 26112
0.0021661764 -0.049822059 0.48024538 26112
0.0030331854 -0.049830902 0.48033065 26112
0.0039005491 -0.04984035 0.48042169 26112
0.0047699534 -0.049867693 0.48068526 26112
0.0056403121 -0.049895067 0.48094913 26112
0.0065116268 -0.049922474 0.4812133 26112
0.0073839002 -0.049949914 0.4814778 26112
0.0082596624 -0.049992692 0.48189017 26112
0.0091379955 -0.050041404 0.48235971 26112
0.010018043 -0.050090216 0.4828302 26112
0.010899809 -0.050139122 0.48330161 26112
0.011788293 -0.050209392 0.48397899 26112
0.012680653 -0.050285351 0.48471114 26112
0.013575708 -0.050361495 0.48544514 26112
0.0144779 -0.050453287 0.48632994 26112
0.015390442 -0.050568592 0.48744139 26112
0.016307194 -0.050684523 0.48855886 26112
0.017243559 -0.050846394 0.49011916 26112
0.018193552 -0.051030695 0.49189568 26112
0.019195061 -0.051335625 0.49483499 26112
-0.019186847 -0.050421249 0.49462324 26112
-0.018189492 -0.050132014 0.49178591 26112
-0.017239645 -0.049950767 0.49000791 26112
-0.016304843 -0.04979587 0.48848841 26112
-0.015388226 -0.049681988 0.48737124 26112
-0.014475786 -0.049568601 0.48625892 26112
-0.01357439 -0.049480841 0.48539802 26112
-0.012679409 -0.049405977 0.48466361 26112
-0.011787142 -0.049331371 0.48393175 26112
-0.010899145 -0.049264137 0.48327219 26112
-0.010017432 -0.04921608 0.48280075 26112
-0.0091374349 -0.049168102 0.48233011 26112
-0.0082591521 -0.049120221 0.4818604 26112
-0.0073836488 -0.049079549 0.48146141 26112
-0.0065114005 -0.049052548 0.48119655 26112
-0.0056401133 -0.049025599 0.48093218 26112
-0.004769783 -0.04899868 0.4806681 26112
-0.00390046 -0.048972443 0.48041072 26112
-0.0030331514 -0.048963729 0.48032525 26112
-0.0021661511 -0.048955012 0.48023975 26112
-0.0012994593 -0.048946299 0.48015428 26112
-0.000433076 -0.048937589 0.4800688 26112
0.00043308121 -0.048938178 0.48007458 26112
0.0012994744 -0.048946869 0.48015985 26112
0.0021661751 -0.048955556 0.48024508 26112
0.0030331835 -0.048964247 0.48033035 26112
0.0039005461 -0.048973523 0.48042133 26112
0.0047699497 -0.049000394 0.48068491 26112
0.0056403079 -0.04902729 0.48094878 26112
0.0065116221 -0.04905422 0.48121294 26112
0.0073838942 -0.04908118 0.48147741 26112
0.008259655 -0.049123209 0.48188972 26112
0.0091379881 -0.049171075 0.48235929 26112
0.010018034 -0.049219038 0.48282978 26112
0.010899799 -0.049267095 0.48330119 26112
0.01178828 -0.049336135 0.48397848 26112
0.01268064 -0.049410768 0.4847106 26112
0.013575693 -0.04948559 0.48544461 26112
0.014477881 -0.049575772 0.48632929 26112
0.015390421 -0.049689077 0.48744076 26112
0.016307173 -0.049802989 0.48855823 26112
0.017243529 -0.049962018 0.49011829 26112
0.018193521 -0.050143115 0.49189481 26112
0.019195007 -0.050442692 0.49483362 26112
-0.019186875 -0.049528912 0.49462399 26112
-0.018189501 -0.04924475 0.49178618 26112
-0.017239653 -0.049066704 0.49000812 26112
-0.016304843 -0.048914529 0.48848844 26112
-0.015388227 -0.048802663 0.48737127 26112
-0.014475787 -0.048691284 0.48625895 26112
-0.013574389 -0.04860507 0.48539796 26112
-0.012679408 -0.048531529 0.48466355 26112
-0.011787141 -0.048458245 0.48393169 26112
-0.010899142 -0.048392192 0.48327205 26112
-0.010017429 -0.048344981 0.4828006 26112
-0.0091374321 -0.048297856 0.48232996 26112
-0.0082591493 -0.04825082 0.48186025 26112
-0.0073836455 -0.048210863 0.4814612 26112
-0.0065113977 -0.048184343 0.48119637 26112
-0.0056401105 -0.048157867 0.48093197 26112
-0.0047697807 -0.048131425 0.48066789 26112
-0.0039004579 -0.048105646 0.48041046 26112
-0.0030331498 -0.048097089 0.48032498 26112
-0.0021661499 -0.048088528 0.48023951 26112
-0.0012994586 -0.048079967 0.48015401 26112
-0.00043307577 -0.048071407 0.48006853 26112
0.00043308095 -0.048071984 0.48007429 26112
0.0012994736 -0.048080523 0.48015955 26112
0.0021661737 -0.048089053 0.48024476 26112
0.0030331814 -0.048097592 0.48033002 26112
0.0039005433 -0.0481067 0.48042098 26112
0.004769946 -0.048133094 0.48068455 26112
0.0056403037 -0.048159514 0.48094842 26112
0.0065116175 -0.048185967 0.48121259 26112
0.0073838886 -0.04821245 0.48147705 26112
0.0082596475 -0.04825373 0.48188931 26112
0.0091379788 -0.048300747 0.48235884 26112
0.010018025 -0.048347861 0.48282933 26112
0.01089979 -0.048395064 0.48330075 26112
0.011788268 -0.048462879 0.48397797 26112
0.012680626 -0.048536189 0.4847101 26112
0.013575679 -0.048609689 0.4854441 26112
0.014477862 -0.048698261 0.48632866 26112
0.015390402 -0.048809562 0.48744014 26112
0.016307151 -0.048921455 0.48855758 26112
0.017243499 -0.049077652 0.49011746 26112
0.018193487 -0.049255539 0.49189395 26112
0.019194953 -0.049549766 0.49483225 26112
-0.019186905 -0.048636571 0.49462473 26112
-0.01818951 -0.048357479 0.49178642 26112
-0.01723966 -0.04818264 0.49000835 26112
-0.016304845 -0.048033189 0.48848847 26112
-0.015388228 -0.047923338 0.4873713 26112
-0.014475788 -0.047813967 0.48625898 26112
-0.013574387 -0.047729295 0.48539791 26112
-0.012679406 -0.04765708 0.48466349 26112
-0.011787139 -0.047585115 0.48393163 26112
-0.01089914 -0.047520246 0.48327193 26112
-0.010017426 -0.047473889 0.48280045 26112
-0.0091374302 -0.047427613 0.48232985 26112
-0.0082591474 -0.047381423 0.4818601 26112
-0.0073836423 -0.047342177 0.48146099 26112
-0.0065113949 -0.047316138 0.48119617 26112
-0.0056401081 -0.047290139 0.48093176 26112
-0.0047697788 -0.047264174 0.48066771 26112
-0.003900456 -0.047238857 0.48041022 26112
-0.0030331481 -0.047230449 0.48032475 26112
-0.0021661487 -0.047222044 0.48023924 26112
-0.001299458 -0.047213636 0.48015377 26112
-0.00043307553 -0.047205232 0.4800683 26112
0.00043308068 -0.047205795 0.48007399 26112
0.0012994726 -0.047214173 0.48015922 26112
0.0021661723 -0.047222555 0.48024446 26112
0.0030331796 -0.04723094 0.48032972 26112
0.0039005403 -0.047239877 0.48042062 26112
0.0047699423 -0.04726579 0.48068416 26112
0.0056402995 -0.047291741 0.48094806 26112
0.0065116123 -0.047317717 0.48121223 26112
0.007383883 -0.047343723 0.48147669 26112
0.0082596401 -0.047384255 0.48188889 26112
0.0091379713 -0.047430422 0.48235843 26112
0.010018016 -0.047476687 0.48282892 26112
0.010899779 -0.04752304 0.48330033 26112
0.011788256 -0.047589622 0.48397747 26112
0.012680612 -0.04766161 0.48470956 26112
0.013575664 -0.047733784 0.48544356 26112
0.014477842 -0.047820751 0.48632801 26112
0.015390381 -0.047930043 0.48743948 26112
0.01630713 -0.048039924 0.48855695 26112
0.017243469 -0.048193287 0.4901166 26112
0.018193457 -0.04836797 0.49189311 26112
0.019194901 -0.04865684 0.49483088 26112
-0.019186933 -0.047744229 0.49462548 26112
-0.018189522 -0.047470212 0.49178669 26112
-0.017239669 -0.04729858 0.49000859 26112
-0.016304847 -0.047151852 0.48848853 26112
-0.015388229 -0.047044016 0.48737133 26112
-0.014475789 -0.046936646 0.48625901 26112
-0.013574384 -0.04685352 0.48539782 26112
-0.012679405 -0.046782631 0.48466343 26112
-0.011787137 -0.046711989 0.48393157 26112
-0.010899136 -0.046648301 0.48327178 26112
-0.010017423 -0.046602797 0.48280033 26112
-0.0091374274 -0.046557367 0.4823297 26112
-0.0082591446 -0.046512023 0.48185995 26112
-0.0073836395 -0.046473496 0.48146081 26112
-0.0065113921 -0.046447933 0.48119596 26112
-0.0056401063 -0.046422411 0.48093158 26112
-0.0047697769 -0.046396922 0.4806675 26112
-0.0039004537 -0.04637206 0.48040995 26112
-0.0030331465 -0.046363812 0.48032448 26112
-0.0021661476 -0.04635556 0.480239 26112
-0.0012994572 -0.046347305 0.4801535 26112
-0.0004330753 -0.046339057 0.48006803 26112
0.00043308036 -0.046339601 0.48007366 26112
0.0012994718 -0.04634783 0.48015893 26112
0.0021661709 -0.04635606 0.48024416 26112
0.0030331777 -0.046364289 0.48032942 26112
0.0039005373 -0.046373054 0.48042023 26112
0.0047699385 -0.046398494 0.4806838 26112
0.0056402949 -0.046423964 0.48094767 26112
0.0065116077 -0.046449468 0.48121187 26112
0.0073838779 -0.046474993 0.48147634 26112
0.0082596326 -0.046514776 0.48188844 26112
0.0091379639 -0.046560097 0.48235801 26112
0.010018008 -0.046605512 0.4828285 26112
0.01089977 -0.046651013 0.48329988 26112
0.011788242 -0.04671637 0.48397696 26112
0.012680599 -0.046787035 0.48470905 26112
0.013575649 -0.046857882 0.48544303 26112
0.014477823 -0.046943244 0.48632735 26112
0.015390362 -0.047050532 0.48743886 26112
0.016307108 -0.047158394 0.4885563 26112
0.017243439 -0.047308926 0.49011576 26112
0.018193426 -0.047480401 0.49189225 26112
0.019194847 -0.047763925 0.49482951 26112
-0.019186962 -0.046851885 0.49462622 26112
-0.018189531 -0.046582945 0.49178696 26112
-0.017239677 -0.046414513 0.4900088 26112
-0.016304847 -0.046270512 0.48848855 26112
-0.01538823 -0.046164691 0.48737136 26112
-0.014475791 -0.046059333 0.48625907 26112
-0.013574382 -0.045977749 0.48539776 26112
-0.012679404 -0.045908187 0.48466337 26112
-0.011787136 -0.045838863 0.48393151 26112
-0.010899132 -0.045776356 0.48327163 26112
-0.01001742 -0.045731701 0.48280019 26112
-0.0091374246 -0.04568712 0.48232955 26112
-0.0082591427 -0.045642629 0.48185983 26112
-0.0073836362 -0.045604814 0.4814606 26112
-0.0065113893 -0.045579724 0.48119575 26112
-0.0056401035 -0.045554683 0.48093137 26112
-0.0047697751 -0.045529671 0.48066729 26112
-0.0039004518 -0.04550527 0.48040971 26112
-0.0030331449 -0.045497175 0.48032424 26112
-0.0021661464 -0.045489077 0.48023874 26112
-0.0012994566 -0.045480978 0.48015326 26112
-0.00043307507 -0.045472883 0.48006779 26112
0.0004330801 -0.045473412 0.48007336 26112
0.0012994711 -0.045481488 0.48015863 26112
0.0021661697 -0.045489561 0.48024386 26112
0.0030331756 -0.045497634 0.4803291 26112
0.0039005342 -0.045506235 0.48041987 26112
0.0047699353 -0.045531198 0.48068345 26112
0.0056402907 -0.045556195 0.48094732 26112
0.0065116026 -0.045581218 0.48121151 26112
0.0073838723 -0.04560627 0.48147598 26112
0.0082596252 -0.0456453 0.48188803 26112
0.0091379546 -0.045689777 0.48235756 26112
0.010017999 -0.045734338 0.48282805 26112
0.010899761 -0.045778994 0.48329946 26112
0.011788229 -0.045843117 0.48397642 26112
0.012680585 -0.045912463 0.48470852 26112
0.013575634 -0.045981988 0.48544252 26112
0.014477803 -0.046065737 0.48632669 26112
0.015390342 -0.046171024 0.48743823 26112
0.016307088 -0.046276871 0.48855567 26112
0.01724341 -0.046424568 0.49011493 26112
0.018193392 -0.046592835 0.49189138 26112
0.019194795 -0.04687101 0.49482813 26112
-0.01918699 -0.045959536 0.49462697 26112
-0.01818954 -0.045695674 0.4917872 26112
-0.017239684 -0.04553045 0.49000904 26112
-0.016304849 -0.045389172 0.48848858 26112
-0.015388232 -0.04528537 0.48737141 26112
-0.014475791 -0.045182016 0.4862591 26112
-0.013574381 -0.045101974 0.4853977 26112
-0.012679402 -0.045033738 0.48466331 26112
-0.011787134 -0.044965733 0.48393142 26112
-0.010899129 -0.044904411 0.48327148 26112
-0.010017417 -0.044860609 0.48280004 26112
-0.0091374218 -0.044816878 0.4823294 26112
-0.00825914 -0.044773232 0.48185968 26112
-0.0073836334 -0.044736132 0.48146039 26112
-0.0065113869 -0.044711523 0.48119557 26112
-0.0056401012 -0.044686954 0.48093116 26112
-0.0047697732 -0.04466242 0.48066711 26112
-0.0039004497 -0.044638477 0.48040944 26112
-0.0030331432 -0.044630539 0.48032397 26112
-0.0021661455 -0.044622596 0.4802385 26112
-0.0012994559 -0.04461465 0.48015299 26112
-0.00043307483 -0.044606708 0.48006752 26112
0.00043307984 -0.044607222 0.48007306 26112
0.0012994703 -0.044615146 0.48015833 26112
0.0021661681 -0.044623062 0.48024353 26112
0.0030331737 -0.044630986 0.4803288 26112
0.0039005314 -0.044639416 0.48041952 26112
0.0047699315 -0.044663906 0.48068309 26112
0.0056402865 -0.044688422 0.48094696 26112
0.0065115974 -0.044712968 0.48121113 26112
0.0073838667 -0.044737544 0.48147562 26112
0.0082596187 -0.044775825 0.48188761 26112
0.0091379471 -0.044819456 0.48235714 26112
0.01001799 -0.044863172 0.48282763 26112
0.010899751 -0.044906974 0.48329905 26112
0.011788217 -0.044969868 0.48397592 26112
0.012680572 -0.045037892 0.48470801 26112
0.013575619 -0.045106091 0.48544198 26112
0.014477785 -0.045188237 0.48632607 26112
0.015390321 -0.045291517 0.48743758 26112
0.016307067 -0.045395348 0.48855504 26112
0.01724338 -0.04554021 0.49011406 26112
0.018193362 -0.045705274 0.49189055 26112
0.019194741 -0.045978103 0.49482676 26112
-0.019187018 -0.045067184 0.49462768 26112
-0.018189549 -0.044808403 0.49178746 26112
-0.017239694 -0.044646386 0.49000928 26112
-0.016304851 -0.044507835 0.48848864 26112
-0.015388233 -0.044406045 0.48737144 26112
-0.014475792 -0.044304699 0.48625913 26112
-0.013574379 -0.044226199 0.48539761 26112
-0.0126794 -0.044159289 0.48466325 26112
-0.011787132 -0.044092607 0.48393136 26112
-0.010899127 -0.044032469 0.48327136 26112
-0.010017415 -0.043989517 0.48279992 26112
-0.0091374191 -0.043946635 0.48232928 26112
-0.0082591372 -0.043903835 0.48185953 26112
-0.0073836301 -0.04386745 0.48146018 26112
-0.0065113842 -0.043843322 0.48119536 26112
-0.0056400993 -0.04381923 0.48093098 26112
-0.0047697709 -0.043795172 0.48066691 26112
-0.0039004476 -0.043771692 0.4804092 26112
-0.0030331418 -0.043763902 0.48032373 26112
-0.0021661441 -0.043756112 0.48023823 26112
-0.0012994551 -0.043748323 0.48015273 26112
-0.00043307463 -0.043740537 0.48006728 26112
0.00043307958 -0.043741036 0.48007277 26112
0.0012994694 -0.043748803 0.480158 26112
0.0021661667 -0.043756567 0.48024324 26112
0.0030331719 -0.043764338 0.4803285 26112
0.0039005284 -0.043772597 0.48041916 26112
0.0047699283 -0.043796614 0.48068273 26112
0.0056402823 -0.043820653 0.4809466 26112
0.0065115928 -0.043844722 0.48121077 26112
0.0073838606 -0.043868821 0.48147523 26112
0.0082596112 -0.043906353 0.48188716 26112
0.0091379387 -0.043949135 0.48235673 26112
0.010017981 -0.043992005 0.48282722 26112
0.010899741 -0.044034954 0.4832986 26112
0.011788205 -0.044096619 0.48397541 26112
0.012680558 -0.04416332 0.48470747 26112
0.013575605 -0.044230197 0.48544148 26112
0.014477765 -0.044310737 0.48632541 26112
0.015390301 -0.044412013 0.48743695 26112
0.016307045 -0.044513825 0.48855439 26112
0.01724335 -0.044655856 0.49011323 26112
0.018193331 -0.044817716 0.49188969 26112
0.019194687 -0.045085195 0.49482536 26112
-0.019187048 -0.044174831 0.49462843 26112
-0.018189559 -0.043921132 0.49178773 26112
-0.017239701 -0.043762319 0.49000949 26112
-0.016304852 -0.043626495 0.48848867 26112
-0.015388234 -0.04352672 0.48737147 26112
-0.014475793 -0.043427378 0.48625916 26112
-0.013574377 -0.043350428 0.48539755 26112
-0.012679398 -0.043284841 0.48466316 26112
-0.01178713 -0.043219481 0.4839313 26112
-0.010899123 -0.043160528 0.48327121 26112
-0.010017412 -0.043118425 0.48279977 26112
-0.0091374163 -0.043076392 0.48232913 26112
-0.0082591353 -0.043034442 0.48185942 26112
-0.0073836274 -0.042998772 0.48146001 26112
-0.0065113814 -0.042975117 0.48119515 26112
-0.0056400965 -0.042951506 0.48093078 26112
-0.004769769 -0.042927921 0.4806667 26112
-0.0039004455 -0.042904902 0.48040894 26112
-0.00303314 -0.042897265 0.48032346 26112
-0.0021661432 -0.042889632 0.48023799 26112
-0.0012994545 -0.042881995 0.48015249 26112
-0.00043307437 -0.042874362 0.48006701 26112
0.00043307929 -0.042874847 0.48007244 26112
0.0012994686 -0.042882465 0.4801577 26112
0.0021661655 -0.042890076 0.48024294 26112
0.00303317 -0.04289769 0.4803282 26112
0.0039005256 -0.042905781 0.4804188 26112
0.0047699246 -0.042929322 0.48068237 26112
0.0056402781 -0.042952888 0.48094624 26112
0.0065115876 -0.04297648 0.48121041 26112
0.0073838555 -0.043000098 0.48147488 26112
0.0082596038 -0.043036882 0.48188674 26112
0.0091379303 -0.043078817 0.48235628 26112
0.010017972 -0.043120835 0.48282677 26112
0.010899732 -0.043162938 0.48329818 26112
0.011788193 -0.043223374 0.4839749 26112
0.012680545 -0.043288752 0.48470697 26112
0.01357559 -0.043354303 0.48544094 26112
0.014477746 -0.043433238 0.48632476 26112
0.015390281 -0.043532509 0.48743629 26112
0.016307024 -0.043632306 0.48855376 26112
0.01724332 -0.043771505 0.49011236 26112
0.018193299 -0.043930158 0.49188882 26112
0.019194635 -0.044192296 0.49482399 26112
-0.019187076 -0.043282475 0.49462917 26112
-0.018189568 -0.043033857 0.49178797 26112
-0.017239708 -0.042878252 0.49000973 26112
-0.016304852 -0.042745154 0.4884887 26112
-0.015388235 -0.042647395 0.4873715 26112
-0.014475794 -0.042550061 0.48625919 26112
-0.013574375 -0.042474657 0.48539749 26112
-0.012679396 -0.042410396 0.4846631 26112
-0.01178713 -0.042346355 0.48393124 26112
-0.01089912 -0.042288586 0.48327106 26112
-0.010017408 -0.042247333 0.48279962 26112
-0.0091374135 -0.04220615 0.48232898 26112
-0.0082591325 -0.042165045 0.48185927 26112
-0.0073836241 -0.04213009 0.4814598 26112
-0.006511379 -0.042106915 0.48119497 26112
-0.0056400946 -0.042083781 0.4809306 26112
-0.0047697672 -0.042060673 0.48066652 26112
-0.0039004437 -0.042038113 0.4804087 26112
-0.0030331386 -0.042030636 0.48032323 26112
-0.002166142 -0.042023152 0.48023772 26112
-0.0012994538 -0.042015672 0.48015222 26112
-0.00043307416 -0.042008195 0.48006678 26112
0.000433079 -0.042008664 0.48007214 26112
0.0012994678 -0.042016126 0.48015741 26112
0.0021661641 -0.042023584 0.48024264 26112
0.0030331679 -0.042031042 0.48032787 26112
0.0039005226 -0.042038966 0.48041844 26112
0.0047699208 -0.042062029 0.48068202 26112
0.0056402739 -0.042085119 0.48094589 26112
0.006511583 -0.042108238 0.48121005 26112
0.0073838499 -0.042131379 0.48147452 26112
0.0082595963 -0.042167414 0.48188633 26112
0.0091379229 -0.0422085 0.48235586 26112
0.010017963 -0.042249672 0.48282635 26112
0.010899722 -0.042290919 0.48329774 26112
0.01178818 -0.042350128 0.4839744 26112
0.01268053 -0.042414188 0.48470643 26112
0.013575575 -0.042478412 0.4854404 26112
0.014477726 -0.042555742 0.4863241 26112
0.015390261 -0.042653009 0.48743567 26112
0.016307002 -0.042750791 0.48855311 26112
0.01724329 -0.042887159 0.49011153 26112
0.018193265 -0.043042604 0.49188796 26112
0.019194581 -0.043299403 0.49482262 26112
-0.019187106 -0.042390116 0.49462992 26112
-0.018189577 -0.042146582 0.49178824 26112
-0.017239718 -0.041994184 0.49000996 26112
-0.016304854 -0.041863814 0.48848876 26112
-0.015388236 -0.04176807 0.48737156 26112
-0.014475795 -0.041672744 0.48625925 26112
-0.013574373 -0.041598883 0.4853974 26112
-0.012679395 -0.041535947 0.48466304 26112
-0.011787128 -0.041473228 0.48393118 26112
-0.010899117 -0.041416645 0.48327094 26112
-0.010017406 -0.041376241 0.4827995 26112
-0.0091374116 -0.041335907 0.48232886 26112
-0.0082591297 -0.041295651 0.48185912 26112
-0.0073836208 -0.041261412 0.48145959 26112
-0.0065113762 -0.041238714 0.48119476 26112
-0.0056400923 -0.041216057 0.48093039 26112
-0.0047697653 -0.041193426 0.48066631 26112
-0.0039004413 -0.041171327 0.48040843 26112
-0.0030331369 -0.041164 0.48032296 26112
-0.0021661408 -0.041156676 0.48023748 26112
-0.0012994531 -0.041149348 0.48015198 26112
-0.00043307393 -0.041142024 0.48006651 26112
0.00043307873 -0.041142479 0.48007184 26112
0.0012994669 -0.041149788 0.48015711 26112
0.0021661627 -0.041157089 0.48024231 26112
0.0030331661 -0.041164398 0.48032758 26112
0.0039005198 -0.041172154 0.48041809 26112
0.0047699171 -0.041194741 0.48068163 26112
0.0056402697 -0.041217357 0.48094553 26112
0.0065115783 -0.041239996 0.4812097 26112
0.0073838443 -0.04126266 0.48147416 26112
0.0082595889 -0.041297942 0.48188588 26112
0.0091379145 -0.041338187 0.48235545 26112
0.010017954 -0.041378506 0.48282591 26112
0.010899712 -0.041418906 0.48329732 26112
0.011788168 -0.041476887 0.48397389 26112
0.012680517 -0.041539624 0.48470592 26112
0.013575561 -0.041602526 0.4854399 26112
0.014477707 -0.04167825 0.48632348 26112
0.015390241 -0.041773513 0.48743504 26112
0.016306981 -0.041869275 0.48855248 26112
0.017243261 -0.042002812 0.49011067 26112
0.018193236 -0.042155057 0.49188712 26112
0.019194527 -0.042406514 0.49482125 26112
-0.019187134 -0.041497756 0.49463066 26112
-0.018189589 -0.041259307 0.49178851 26112
-0.017239725 -0.041110113 0.49001017 26112
-0.016304856 -0.040982474 0.48848879 26112
-0.015388237 -0.040888745 0.48737159 26112
-0.014475796 -0.040795427 0.48625928 26112
-0.013574371 -0.040723111 0.48539734 26112
-0.012679393 -0.040661503 0.48466298 26112
-0.011787127 -0.040600102 0.48393112 26112
-0.010899113 -0.040544704 0.48327079 26112
-0.010017402 -0.040505152 0.48279935 26112
-0.0091374088 -0.040465664 0.48232871 26112
-0.0082591278 -0.040426254 0.48185897 26112
-0.0073836176 -0.04039273 0.48145938 26112
-0.0065113734 -0.040370513 0.48119456 26112
-0.0056400895 -0.040348332 0.48093018 26112
-0.004769763 -0.040326178 0.4806661 26112
-0.0039004395 -0.040304542 0.48040819 26112
-0.0030331353 -0.04029737 0.48032272 26112
-0.0021661397 -0.040290195 0.48023722 26112
-0.0012994524 -0.040283024 0.48015171 26112
-0.0004330737 -0.040275853 0.48006627 26112
0.00043307847 -0.040276296 0.48007154 26112
0.0012994661 -0.040283449 0.48015678 26112
0.0021661613 -0.040290598 0.48024201 26112
0.0030331642 -0.040297754 0.48032728 26112
0.0039005168 -0.040305343 0.48041773 26112
0.0047699134 -0.040327452 0.48068127 26112
0.0056402651 -0.040349588 0.48094514 26112
0.0065115732 -0.040371753 0.48120934 26112
0.0073838388 -0.040393941 0.4814738 26112
0.0082595814 -0.040428478 0.48188546 26112
0.0091379061 -0.040467869 0.482355 26112
0.010017945 -0.040507343 0.48282549 26112
0.010899702 -0.040546894 0.4832969 26112
0.011788156 -0.040603649 0.48397338 26112
0.012680503 -0.04066506 0.48470539 26112
0.013575546 -0.040726639 0.48543936 26112
0.014477688 -0.040800758 0.48632282 26112
0.01539022 -0.040894013 0.48743439 26112
0.016306959 -0.040987764 0.48855183 26112
0.017243231 -0.041118473 0.49010983 26112
0.018193204 -0.041267511 0.49188626 26112
0.019194474 -0.041513629 0.49481988 26112
-0.019187164 -0.040605392 0.49463141 26112
-0.018189596 -0.040372033 0.49178874 26112
-0.017239733 -0.040226046 0.49001041 26112
-0.016304858 -0.040101137 0.48848885 26112
-0.015388238 -0.04000942 0.48737162 26112
-0.014475797 -0.03991811 0.48625931 26112
-0.013574368 -0.03984734 0.48539725 26112
-0.012679392 -0.039787058 0.48466292 26112
-0.011787125 -0.039726976 0.48393106 26112
-0.010899111 -0.039672762 0.48327065 26112
-0.0100174 -0.03963406 0.4827992 26112
-0.009137406 -0.039595425 0.48232856 26112
-0.008259126 -0.039556865 0.48185885 26112
-0.0073836148 -0.039524056 0.4814592 26112
-0.0065113707 -0.039502315 0.48119435 26112
-0.0056400876 -0.039480612 0.48093 26112
-0.0047697611 -0.039458934 0.48066592 26112
-0.0039004374 -0.039437756 0.48040792 26112
-0.0030331337 -0.039430737 0.48032245 26112
-0.0021661385 -0.039423723 0.48023698 26112
-0.0012994517 -0.039416701 0.48015147 26112
-0.00043307347 -0.039409686 0.480066 26112
0.00043307821 -0.039410114 0.48007125 26112
0.0012994653 -0.039417114 0.48015648 26112
0.0021661599 -0.03942411 0.48024172 26112
0.0030331623 -0.03943111 0.48032698 26112
0.0039005138 -0.039438527 0.48041734 26112
0.0047699101 -0.039460164 0.48068091 26112
0.0056402609 -0.039481826 0.48094478 26112
0.0065115686 -0.039503515 0.48120898 26112
0.0073838332 -0.039525226 0.48147345 26112
0.0082595749 -0.039559014 0.48188505 26112
0.0091378987 -0.03959756 0.48235458 26112
0.010017936 -0.039636184 0.48282507 26112
0.010899693 -0.039674882 0.48329645 26112
0.011788143 -0.039730407 0.48397285 26112
0.012680489 -0.0397905 0.48470485 26112
0.013575532 -0.039850757 0.48543885 26112
0.014477668 -0.039923269 0.48632216 26112
0.015390201 -0.04001452 0.48743376 26112
0.016306939 -0.040106256 0.4885512 26112
0.017243201 -0.040234134 0.49010897 26112
0.018193172 -0.040379968 0.49188539 26112
0.01919442 -0.040620752 0.49481851 26112
-0.019187192 -0.039713025 0.49463215 26112
-0.018189607 -0.039484754 0.49178901 26112
-0.01723974 -0.039341971 0.49001062 26112
-0.016304858 -0.039219797 0.48848888 26112
-0.015388239 -0.039130095 0.48737165 26112
-0.014475798 -0.039040789 0.48625934 26112
-0.013574366 -0.038971569 0.48539719 26112
-0.012679391 -0.038912613 0.48466286 26112
-0.011787124 -0.03885385 0.48393101 26112
-0.010899108 -0.038800824 0.48327053 26112
-0.010017397 -0.038762972 0.48279908 26112
-0.0091374032 -0.038725182 0.48232841 26112
-0.0082591232 -0.038687471 0.4818587 26112
-0.0073836115 -0.038655378 0.48145899 26112
-0.0065113679 -0.038634118 0.48119417 26112
-0.0056400853 -0.038612891 0.48092979 26112
-0.0047697593 -0.038591687 0.48066571 26112
-0.0039004353 -0.03857097 0.48040769 26112
-0.0030331323 -0.038564108 0.48032221 26112
-0.0021661373 -0.038557243 0.48023671 26112
-0.001299451 -0.038550381 0.48015121 26112
-0.00043307326 -0.038543519 0.48006576 26112
0.00043307789 -0.038543932 0.48007092 26112
0.0012994645 -0.038550779 0.48015618 26112
0.0021661585 -0.038557623 0.48024142 26112
0.0030331602 -0.038564466 0.48032665 26112
0.0039005107 -0.038571719 0.48041698 26112
0.0047699064 -0.038592879 0.48068056 26112
0.0056402567 -0.038614064 0.48094442 26112
0.006511563 -0.038635276 0.48120859 26112
0.0073838276 -0.038656507 0.48147306 26112
0.0082595665 -0.03868955 0.4818846 26112
0.0091378903 -0.03872725 0.48235416 26112
0.010017927 -0.038765024 0.48282462 26112
0.010899683 -0.038802873 0.48329604 26112
0.011788131 -0.038857169 0.48397234 26112
0.012680476 -0.038915943 0.48470435 26112
0.013575517 -0.03897487 0.48543832 26112
0.014477649 -0.039045781 0.48632151 26112
0.015390181 -0.039135031 0.48743314 26112
0.016306916 -0.039224744 0.48855054 26112
0.017243171 -0.039349802 0.49010813 26112
0.018193141 -0.039492428 0.49188456 26112
0.019194368 -0.039727878 0.49481714 26112
-0.019187221 -0.038820658 0.4946329 26112
-0.018189617 -0.038597479 0.49178928 26112
-0.017239749 -0.0384579 0.49001086 26112
-0.01630486 -0.038338453 0.48848891 26112
-0.01538824 -0.03825077 0.48737168 26112
-0.014475799 -0.038163472 0.48625937 26112
-0.013574366 -0.038095798 0.48539713 26112
-0.012679389 -0.038038164 0.4846628 26112
-0.011787122 -0.037980728 0.48393095 26112
-0.010899104 -0.037928883 0.48327038 26112
-0.010017394 -0.037891883 0.48279893 26112
-0.0091374004 -0.037854943 0.4823283 26112
-0.0082591204 -0.037818078 0.48185855 26112
-0.0073836087 -0.037786704 0.48145878 26112
-0.0065113651 -0.037765916 0.48119396 26112
-0.0056400825 -0.03774517 0.48092958 26112
-0.0047697574 -0.037724447 0.48066553 26112
-0.0039004332 -0.037704188 0.48040742 26112
-0.0030331304 -0.037697479 0.48032194 26112
-0.0021661362 -0.03769077 0.48023647 26112
-0.0012994504 -0.037684061 0.48015097 26112
-0.000433073 -0.037677351 0.48006549 26112
0.00043307763 -0.037677754 0.48007062 26112
0.0012994637 -0.037684444 0.48015589 26112
0.0021661571 -0.037691135 0.48024109 26112
0.0030331584 -0.037697826 0.48032635 26112
0.0039005079 -0.037704911 0.48041663 26112
0.0047699031 -0.037725598 0.4806802 26112
0.0056402525 -0.037746307 0.48094407 26112
0.0065115583 -0.037767038 0.48120824 26112
0.007383822 -0.037787795 0.4814727 26112
0.00825956 -0.03782009 0.48188418 26112
0.0091378819 -0.03785694 0.48235372 26112
0.010017918 -0.037893865 0.48282421 26112
0.010899673 -0.037930861 0.48329559 26112
0.011788118 -0.037983935 0.48397183 26112
0.012680462 -0.038041383 0.48470381 26112
0.013575503 -0.038098991 0.48543781 26112
0.01447763 -0.0381683 0.48632088 26112
0.01539016 -0.038255543 0.48743248 26112
0.016306896 -0.03834324 0.48854992 26112
0.017243141 -0.038465466 0.49010727 26112
0.018193109 -0.038604889 0.4918837 26112
0.019194314 -0.038835008 0.49481577 26112
-0.019187249 -0.037928283 0.49463364 26112
-0.018189626 -0.037710197 0.49178952 26112
-0.017239757 -0.037573829 0.4900111 26112
-0.016304862 -0.037457116 0.48848897 26112
-0.015388242 -0.037371445 0.48737174 26112
-0.014475801 -0.037286155 0.48625943 26112
-0.013574363 -0.037220027 0.48539704 26112
-0.012679387 -0.03716372 0.48466274 26112
-0.011787121 -0.037107602 0.48393089 26112
-0.010899101 -0.037056942 0.48327023 26112
-0.010017391 -0.037020795 0.48279878 26112
-0.0091373976 -0.036984704 0.48232815 26112
-0.0082591185 -0.036948688 0.48185843 26112
-0.0073836059 -0.036918029 0.4814586 26112
-0.0065113623 -0.036897719 0.48119375 26112
-0.0056400807 -0.03687745 0.4809294 26112
-0.0047697555 -0.036857199 0.48066533 26112
-0.0039004313 -0.036837406 0.48040718 26112
-0.003033129 -0.036830854 0.48032171 26112
-0.002166135 -0.036824297 0.4802362 26112
-0.0012994496 -0.036817741 0.4801507 26112
-0.00043307277 -0.036811184 0.48006523 26112
0.00043307737 -0.036811575 0.48007032 26112
0.0012994627 -0.036818113 0.48015556 26112
0.0021661557 -0.036824647 0.48024079 26112
0.0030331565 -0.036831185 0.48032606 26112
0.0039005051 -0.036838103 0.48041627 26112
0.0047698994 -0.036858313 0.48067984 26112
0.0056402483 -0.036878549 0.48094371 26112
0.0065115537 -0.036898803 0.48120788 26112
0.0073838164 -0.036919083 0.48147234 26112
0.0082595525 -0.036950629 0.48188376 26112
0.0091378745 -0.036986634 0.4823533 26112
0.01001791 -0.03702271 0.48282379 26112
0.010899664 -0.037058856 0.48329517 26112
0.011788106 -0.037110705 0.48397133 26112
0.012680449 -0.03716683 0.4847033 26112
0.013575488 -0.037223112 0.48543727 26112
0.014477611 -0.037290815 0.48632023 26112
0.01539014 -0.037376054 0.48743185 26112
0.016306875 -0.037461739 0.48854929 26112
0.017243112 -0.037581142 0.49010643 26112
0.018193077 -0.037717354 0.49188283 26112
0.019194262 -0.037942145 0.4948144 26112
-0.019187277 -0.037035909 0.49463436 26112
-0.018189635 -0.036822919 0.49178979 26112
-0.017239764 -0.036689755 0.4900113 26112
-0.016304862 -0.036575772 0.488489 26112
-0.015388243 -0.03649212 0.48737177 26112
-0.014475802 -0.036408834 0.48625946 26112
-0.013574361 -0.036344256 0.48539698 26112
-0.012679385 -0.036289275 0.48466268 26112
-0.011787118 -0.036234476 0.4839308 26112
-0.010899099 -0.036185008 0.48327011 26112
-0.010017389 -0.036149703 0.48279864 26112
-0.0091373948 -0.036114465 0.482328 26112
-0.0082591157 -0.036079295 0.48185828 26112
-0.0073836027 -0.036049355 0.4814584 26112
-0.0065113599 -0.036029525 0.48119357 26112
-0.0056400783 -0.036009729 0.4809292 26112
-0.0047697532 -0.035989955 0.48066512 26112
-0.003900429 -0.035970625 0.48040691 26112
-0.0030331274 -0.035964224 0.48032144 26112
-0.0021661341 -0.035957824 0.48023596 26112
-0.001299449 -0.035951421 0.48015046 26112
-0.00043307256 -0.035945021 0.48006499 26112
0.0004330771 -0.035945401 0.48007002 26112
0.0012994619 -0.035951782 0.48015526 26112
0.0021661543 -0.035958163 0.48024049 26112
0.0030331546 -0.035964549 0.48032576 26112
0.0039005021 -0.035971299 0.48041591 26112
0.0047698957 -0.035991032 0.48067948 26112
0.0056402441 -0.036010791 0.48094335 26112
0.0065115485 -0.036030568 0.48120752 26112
0.0073838108 -0.036050372 0.48147199 26112
0.0082595451 -0.036081169 0.48188332 26112
0.0091378661 -0.036116328 0.48235288 26112
0.010017901 -0.036151554 0.48282334 26112
0.010899655 -0.036186852 0.48329476 26112
0.011788093 -0.036237471 0.48397082 26112
0.012680434 -0.036292277 0.48470277 26112
0.013575473 -0.036347233 0.48543674 26112
0.014477591 -0.036413334 0.48631957 26112
0.01539012 -0.036496572 0.48743123 26112
0.016306853 -0.036580238 0.48854864 26112
0.017243082 -0.036696814 0.49010557 26112
0.018193046 -0.036829825 0.491882 26112
0.019194208 -0.037049286 0.49481302 26112
-0.019187307 -0.03614353 0.49463511 26112
-0.018189644 -0.03593564 0.49179006 26112
-0.017239774 -0.035805684 0.49001154 26112
-0.016304864 -0.035694432 0.48848903 26112
-0.015388244 -0.035612796 0.4873718 26112
-0.014475803 -0.035531517 0.48625949 26112
-0.013574359 -0.035468485 0.48539692 26112
-0.012679383 -0.03541483 0.48466259 26112
-0.011787117 -0.03536135 0.48393074 26112
-0.010899095 -0.035313066 0.48326996 26112
-0.010017386 -0.035278618 0.48279852 26112
-0.009137393 -0.03524423 0.48232788 26112
-0.0082591129 -0.035209905 0.48185813 26112
-0.0073835994 -0.03518068 0.48145819 26112
-0.0065113571 -0.035161328 0.48119336 26112
-0.0056400755 -0.035142012 0.48092899 26112
-0.0047697513 -0.035122715 0.48066494 26112
-0.0039004271 -0.035103843 0.48040667 26112
-0.0030331258 -0.035097599 0.4803212 26112
-0.0021661327 -0.035091352 0.4802357 26112
-0.0012994482 -0.035085104 0.48015019 26112
-0.0004330723 -0.035078857 0.48006472 26112
0.00043307681 -0.035079222 0.4800697 26112
0.0012994611 -0.035085451 0.48015496 26112
0.0021661532 -0.03509168 0.4802402 26112
0.0030331525 -0.035097908 0.48032543 26112
0.0039004993 -0.035104495 0.48041555 26112
0.004769892 -0.035123751 0.48067909 26112
0.0056402399 -0.035143033 0.48094299 26112
0.0065115439 -0.035162337 0.48120716 26112
0.0073838057 -0.03518166 0.48147163 26112
0.0082595376 -0.035211712 0.4818829 26112
0.0091378577 -0.035246022 0.48235244 26112
0.010017892 -0.035280403 0.48282292 26112
0.010899644 -0.035314847 0.48329431 26112
0.011788081 -0.035364244 0.48397031 26112
0.012680421 -0.035417728 0.48470226 26112
0.013575459 -0.035471361 0.48543623 26112
0.014477572 -0.035535861 0.48631895 26112
0.0153901 -0.035617087 0.48743057 26112
0.016306832 -0.035698742 0.48854801 26112
0.017243052 -0.035812493 0.49010473 26112
0.018193014 -0.035942294 0.49188113 26112
0.019194154 -0.036156431 0.49481162 26112
-0.019187335 -0.035251152 0.49463585 26112
-0.018189654 -0.035048358 0.49179029 26112
-0.017239781 -0.034921609 0.49001178 26112
-0.016304865 -0.034813091 0.48848909 26112
-0.015388245 -0.034733467 0.48737183 26112
-0.014475804 -0.034654196 0.48625952 26112
-0.013574357 -0.034592714 0.48539683 26112
-0.012679381 -0.034540385 0.48466253 26112
-0.011787116 -0.034488227 0.48393068 26112
-0.010899091 -0.034441128 0.48326981 26112
-0.010017383 -0.03440753 0.48279837 26112
-0.0091373902 -0.034373991 0.48232773 26112
-0.0082591111 -0.034340512 0.48185799 26112
-0.0073835962 -0.034312006 0.48145798 26112
-0.0065113544 -0.034293134 0.48119316 26112
-0.0056400737 -0.034274295 0.48092881 26112
-0.0047697495 -0.034255475 0.48066473 26112
-0.003900425 -0.034237064 0.4804064 26112
-0.0030331241 -0.034230974 0.48032093 26112
-0.0021661317 -0.034224879 0.48023546 26112
-0.0012994476 -0.034218788 0.48014995 26112
-0.0004330721 -0.034212697 0.48006448 26112
0.00043307652 -0.034213047 0.4800694 26112
0.0012994603 -0.034219123 0.48015466 26112
0.0021661515 -0.034225196 0.48023987 26112
0.0030331507 -0.034231272 0.48032513 26112
0.0039004963 -0.03423769 0.4804152 26112
0.0047698882 -0.034256473 0.48067874 26112
0.0056402353 -0.034275278 0.48094261 26112
0.0065115392 -0.034294106 0.4812068 26112
0.0073837996 -0.034312952 0.48147124 26112
0.0082595302 -0.034342259 0.48188248 26112
0.0091378503 -0.03437572 0.48235202 26112
0.010017883 -0.034409251 0.48282251 26112
0.010899635 -0.034442846 0.48329389 26112
0.011788068 -0.034491014 0.48396978 26112
0.012680407 -0.034543179 0.48470172 26112
0.013575444 -0.034595486 0.48543569 26112
0.014477553 -0.034658384 0.48631829 26112
